# .PCD v0.7 - Point Cloud Data file format
VERSION 0.7
FIELDS x y z intensity
SIZE 4 4 4 4
TYPE F F F F
COUNT 1 1 1 1
WIDTH 1440
HEIGHT 1
VIEWPOINT 0 0 0 1 0 0 0
POINTS 1440
DATA ascii
-3.417551 0.51517665 42.147091 9.5
1.6666808 0.58679461 42.067616 14
7.1495037 0.46902856 42.155048 9
7.2175941 0.5191381 42.16066 9
-3.4152367 0.71097308 42.143116 10.333333
-3.3553562 0.65982932 42.045998 10
7.215167 0.6321373 42.189594 9
7.417624 0.71627963 42.116482 9
36.411995 0.79381299 42.005302 7
-3.4391804 0.90724367 42.123013 11.25
7.6223564 0.83057886 42.030014 9
34.136753 0.80229652 42.174801 7
35.138878 0.95671344 42.105339 7
35.211063 0.93527925 42.130672 7
-3.5159402 1.0904863 42.192997 12
22.922108 1.55251 42.121834 9
30.175541 1.5905292 42.186413 8
31.961454 1.5698348 42.18111 8
32.262302 1.4452692 42.173019 8
35.114067 1.5859317 42.071018 8
40.763466 1.5512842 42.087589 8
13.245569 1.6119049 42.019165 11
32.12236 1.6645823 42.1703 8
32.915855 1.651634 42.164497 8
34.127827 1.6008488 42.064796 8
34.796879 1.6087601 42.173759 8
34.890457 1.6709329 42.05912 8
36.341148 1.6144223 42.002235 8
37.149921 1.6161652 42.006691 8
37.245068 1.6984243 42.001877 8
40.758469 1.7673581 42.163345 8
41.070568 1.7211128 42.15023 8
37.980831 1.9779894 42.010315 9
-6.0680313 2.1463702 42.064987 14
31.25218 2.1464925 42.099045 9
35.847755 2.1398675 42.045422 9
-6.0732484 2.2720058 42.165371 13
-5.9644761 2.3272734 42.142246 12
22.958115 2.3291595 42.049713 10
28.296566 2.2013576 42.158112 9
29.930174 2.3997033 42.121044 9
31.060379 2.3804612 42.152729 9
31.290152 2.2390034 42.040382 9
32.294891 2.2877319 42.194889 9
32.705605 2.2759621 42.198944 9
33.566486 2.253432 42.02145 9
34.564503 2.396852 42.16436 9
34.632263 2.3936911 42.117622 9
35.743084 2.3066695 42.087219 9
36.645584 2.3063126 42.004059 9
37.220985 2.3887172 42.030563 9
37.678715 2.379601 42.036362 9
37.824596 2.3781397 42.021942 9
-6.0412693 2.4608638 42.130329 15
22.949457 2.5502784 42.062584 10
30.985287 2.4404583 42.166534 9
31.924789 2.4846373 42.161568 9
32.396248 2.4207048 42.171696 9
32.574085 2.459846 42.174179 9
33.430359 2.4173245 42.081764 9
34.763332 2.5992651 42.107353 9
34.887142 2.4545343 42.108109 9
35.165512 2.4147627 42.033222 9
35.4361 2.5072148 42.10614 9
35.658298 2.4290552 42.085762 9
37.486145 2.5220602 42.015228 9
41.552311 2.5676875 42.051071 9
41.610077 2.5945585 42.098885 9
90.662842 2.5760531 42.099476 5
-6.006588 2.6672845 42.077816 14
-5.9639368 2.6487253 42.072517 13
37.960392 2.7686343 42.029991 10
38.064693 2.6000061 42.000359 9
41.583889 2.6043739 42.073418 9
90.659874 2.7545409 42.059639 5.8000002
93.244362 2.7020249 42.170349 3
-6.0028234 2.8487904 42.105446 13
32.762177 2.9789505 42.198471 10
90.568756 2.9973583 42.06469 7
90.667442 2.8039451 42.0742 6
-6.0179472 3.0813701 42.069538 15
-5.9617014 3.1590316 42.044098 14
31.512114 3.0917852 42.116653 10
32.261723 3.19245 42.171772 10
32.463673 3.0654914 42.186142 10
35.430504 3.0897913 42.058472 10
37.452251 3.1888382 42.041153 10
37.701801 3.1974525 42.026676 10
38.055824 3.1825371 42.017849 10
90.559196 3.008122 42.041843 7
90.63665 3.0186591 42.092045 7
-5.9680943 3.3556912 42.152069 14
22.914646 3.3405619 42.112358 11
27.55925 3.3952224 42.150368 10
32.87191 3.2745719 42.113884 10
34.530766 3.2074101 42.08395 10
35.100464 3.3240557 42.014526 10
35.458675 3.3753452 42.008804 10
35.667255 3.3423858 42.04179 10
36.116299 3.2952816 42.04937 10
36.830246 3.281677 42.010765 10
37.366379 3.2842207 42.011398 10
37.495758 3.3462718 42.007664 10
38.548779 3.3703251 42.010506 10
93.253273 3.2757933 42.199795 7.5
-5.9925132 3.4296296 42.177532 15
34.738678 3.543474 42.086716 10
34.845268 3.4339547 42.056675 10
35.074581 3.4591484 42.026279 10
35.229366 3.5023158 42.007477 10
35.526508 3.4581192 42.056244 10
35.604115 3.4638276 42.086472 10
36.217072 3.4105167 42.001625 10
36.544403 3.4705589 42.00676 10
37.05637 3.5157175 42.011433 10
37.473709 3.4149876 42.01535 10
37.617111 3.4355803 42.036934 10
37.869923 3.5636055 42.010254 11
93.237846 3.5194824 42.014221 9.5
-5.9612293 3.6763341 42.017929 15
36.221657 3.6399722 42.067596 10
36.856598 3.6253498 42.040291 10
93.29818 3.7051406 42.053566 11
-6.0289459 3.894208 42.092964 15
34.848213 3.939714 42.09388 11
36.08569 3.9678953 42.100353 11
93.348679 3.8274257 42.096302 12
22.880995 4.0754504 42.062893 12
33.363556 4.0994072 42.138271 11
35.705841 4.0140409 42.066559 11
35.865227 4.1316843 42.07338 11
36.102726 4.1109467 42.079723 11
36.310303 4.1162848 42.077591 11
37.118244 4.1708975 42.003277 11
37.28952 4.1264706 42.064827 11
37.403675 4.0892024 42.05394 11
37.62101 4.136889 42.015087 11
39.123985 4.1982813 42.00293 11
34.819492 4.39643 42.128899 11
35.112541 4.3621368 42.093636 11
35.299347 4.3113213 42.07122 11
35.501102 4.300777 42.103481 11
35.738571 4.3052235 42.067455 11
36.090229 4.3042316 42.065014 11
36.288643 4.3062286 42.020485 11
36.400818 4.2920485 42.062214 11
36.67627 4.2666101 42.069603 11
36.903126 4.3386416 42.026371 11
37.008846 4.3107171 42.013107 11
37.263424 4.2820225 42.034203 11
38.297398 4.2619634 42.00946 11
38.627312 4.2831726 42.008713 11
34.760921 4.4685802 42.098381 11
35.289459 4.5606365 42.082809 11
35.484604 4.4158258 42.102539 11
35.824738 4.5422215 42.041965 11
36.394703 4.5189037 42.077061 11
36.602936 4.4284182 42.016056 11
37.173107 4.4885206 42.012421 11
37.334927 4.4248762 42.025982 11
37.424713 4.4918003 42.01804 11
36.994019 4.76583 42.036049 12
37.309471 4.7797809 42.029884 12
23.035578 4.9168472 42.110012 13
36.101067 4.8658843 42.06073 12
36.56971 4.89434 42.073742 12
36.730911 4.9000263 42.048347 12
36.903233 4.9131546 42.042805 12
37.183079 4.9896555 42.046314 12
37.309788 4.9052744 42.016075 12
37.692356 4.9209514 42.039433 12
37.916012 4.9157467 42.029728 12
38.179672 4.9747944 42.000462 12
38.746655 4.9325471 42.008884 12
111.81625 4.9918489 42.111248 10
35.220978 5.1384845 42.133816 12
35.419941 5.1267905 42.038868 12
35.727859 5.1948824 42.048653 12
35.980831 5.1926198 42.050331 12
36.181614 5.1619649 42.062561 12
36.52346 5.0983219 42.034237 12
36.703884 5.1334329 42.031784 12
36.859974 5.1912498 42.015961 12
37.105438 5.1167526 42.049217 12
37.231331 5.1502175 42.052536 12
37.497917 5.0963621 42.060741 12
37.64093 5.1241512 42.0382 12
37.86594 5.1276059 42.03075 12
38.542461 5.1242676 42.003433 12
35.508026 5.2768297 42.102325 12
35.609066 5.2796516 42.033806 12
36.121567 5.2625313 42.057365 12
36.289062 5.2792988 42.04393 12
36.910194 5.2109489 42.019829 12
37.094856 5.3575339 42.040375 12
37.35498 5.2614269 42.043114 12
37.423794 5.3607812 42.066391 12
37.920273 5.3178539 42.018211 12
38.732071 5.3044705 42.007168 12
101.18361 5.3311777 42.191441 14
101.2223 5.3271704 42.198078 15
22.843153 5.5782208 42.059113 14
32.405666 5.4056482 42.138153 13
34.219219 5.5229053 42.094582 13
35.343029 5.4023819 42.087433 12
35.954674 5.4387484 42.052483 12
36.848907 5.7830029 42.010166 13
37.481552 5.7395077 42.026646 13
37.763954 5.7688665 42.008118 13
37.812851 5.6807032 42.039043 13
100.97978 5.7019835 42.103634 15
101.0552 5.6671329 42.180157 13
36.682072 5.903357 42.045464 13
36.900364 5.8343153 42.031036 13
37.104427 5.9489231 42.016129 13
37.248749 5.9445562 42.077599 13
37.854702 5.9149175 42.008484 13
38.157242 5.9008231 42.065006 13
38.512642 5.8912601 42.047241 13
101.18011 5.8953309 42.074375 12
38.48835 6.021369 42.004799 13
39.096092 6.0249462 42.005646 13
101.04269 6.1388359 42.043385 13
100.40087 6.3865409 42.109573 11
100.66149 6.3329115 42.038109 14
100.80616 6.3766422 42.060555 12
100.67851 6.4152842 42.11351 12
101.15164 6.5818071 42.077507 13
71.352318 6.6910863 42.186588 12
75.693443 7.1072807 42.122856 14
75.129723 7.6940031 42.186081 15
1.2885695 -0.4740968 42.26675 1.4166666
6.9457879 -0.47756347 42.280987 3.5999999
1.3234694 -0.31007957 42.254475 3.5
1.7138863 -0.28557721 42.341702 2.75
1.8145773 -0.2204666 42.344162 3.5
6.798027 -0.26355076 42.355312 5
6.8708849 -0.31222212 42.30999 4.8269229
7.0523334 -0.29873925 42.222775 5.5
-3.1474276 -0.13864391 42.310661 7
1.3139383 -0.097801089 42.300446 5.8333335
1.695663 -0.1113748 42.33569 5
3.5628543 -0.11507268 42.326679 3
6.8837638 -0.12120449 42.273891 6
7.07054 -0.082516514 42.262897 6.4166665
7.3006015 -0.044256132 42.228596 7
-3.1272097 0.11834984 42.306038 8
1.2820857 0.14812452 42.284637 8.75
1.6344435 0.1936451 42.388939 9
1.9219224 0.19832809 42.353409 9
6.8734784 0.0857324 42.300274 7
-3.3827395 0.38189831 42.358601 9
1.172313 0.36573473 42.383339 14.5
1.2597063 0.21759704 42.392662 10.5
1.9464524 0.38391036 42.365242 11.5
6.9202833 0.32818514 42.335743 8.1000004
7.0250635 0.35596043 42.227757 8
-3.4137139 0.52740663 42.285229 10
-0.10238814 0.54469001 42.374508 12
1.1077414 0.47251245 42.321381 14.333334
6.9626098 0.4924607 42.318954 9.272727
7.020885 0.59692818 42.3181 9.5
7.2042108 0.59967214 42.202583 9
-3.4473984 0.61489099 42.258976 10
-3.3548217 0.64106584 42.346928 10
-0.095524788 0.65397817 42.368206 13
6.9906998 0.61926556 42.387882 9.333333
7.0826116 0.66491032 42.319466 9.6923075
7.2598553 0.70118606 42.238174 9.2222223
-3.4673548 0.93849003 42.301914 11.5
-3.3866973 0.91550022 42.373528 11
7.3434205 0.84991479 42.237259 9
10.923882 1.0913922 42.391651 10
22.903072 1.1833581 42.313034 8
25.850815 1.125525 42.379036 8
22.899973 1.2578793 42.388733 8
29.384886 1.3560462 42.338169 8
22.972338 1.5383791 42.359093 9
27.551632 1.4466016 42.364368 8
27.674185 1.4435163 42.222618 8
28.401901 1.5038271 42.346863 8
28.847126 1.5684469 42.36158 8
29.063719 1.4762845 42.245613 8
29.29291 1.5201814 42.289047 8
30.053343 1.5784683 42.315197 8
30.368452 1.5933304 42.326618 8
30.549477 1.4788967 42.294407 8
31.094149 1.5740016 42.246765 8
31.297567 1.5534722 42.248653 8
31.643757 1.494814 42.27145 8
34.749924 1.5586727 42.243469 8
-5.9396949 1.7937506 42.394287 11
10.928152 1.6400448 42.393456 12
28.801662 1.6235745 42.332756 8
29.405556 1.6348617 42.275482 8
30.432173 1.6530373 42.214169 8
30.968264 1.6459026 42.234612 8
31.10281 1.60005 42.239807 8
31.213705 1.6644211 42.235519 8
31.454197 1.607716 42.268776 8
32.168518 1.6165345 42.260979 8
40.951912 1.7399988 42.221783 8
41.38958 1.7799666 42.205338 8
10.969 1.9451003 42.387302 13
25.259373 1.9952867 42.322083 9
41.40612 1.809622 42.203041 8
-6.0474243 2.1107984 42.34761 13.5
11.061937 2.0339088 42.347725 12
24.393183 2.1243932 42.397026 9
24.574881 2.101094 42.351936 9
24.975773 2.0726905 42.32093 9
25.410809 2.1464648 42.398781 9
27.159172 2.1277354 42.335182 9
29.146212 2.1909468 42.360458 9
29.811756 2.164063 42.266724 9
30.039154 2.1704369 42.215393 9
32.534561 2.1820025 42.218536 9
-5.9877596 2.2378078 42.301727 13
10.932953 2.3123941 42.369122 14
11.035738 2.3796186 42.262127 12
28.579067 2.3505671 42.383968 9
29.10391 2.36024 42.352814 9
29.387247 2.3552094 42.337067 9
30.737587 2.3883176 42.253235 9
30.834583 2.2350879 42.278835 9
31.3799 2.3683381 42.275551 9
31.518677 2.2599266 42.260147 9
31.651886 2.2121243 42.252792 9
31.821344 2.2906733 42.257278 9
32.261246 2.2969201 42.300667 9
32.473686 2.258225 42.233253 9
32.716911 2.2097166 42.208225 9
40.802368 2.3692207 42.213089 9
-6.0105381 2.4266768 42.231495 13
-5.99968 2.4723787 42.227066 13
22.942957 2.5111885 42.378796 10
27.595512 2.4130461 42.302979 9
27.633944 2.4141836 42.205872 9
28.346107 2.4361134 42.35535 9
28.893703 2.437151 42.304703 9
29.813591 2.4384899 42.234848 9
31.275867 2.4511461 42.315552 9
31.45278 2.4676361 42.224739 9
31.695551 2.4870775 42.260895 9
31.890759 2.4447508 42.269249 9
32.255707 2.4356749 42.242805 9
32.473633 2.441812 42.203175 9
40.761131 2.5232291 42.316811 9
40.945705 2.5266414 42.32975 9
41.192726 2.4856546 42.239922 9
41.239178 2.597508 42.303497 9
41.537216 2.5405569 42.313915 9
41.725929 2.5506613 42.266464 9
90.68084 2.5444069 42.271297 5
93.286743 2.4907246 42.252327 1.3333333
-6.0042849 2.6579409 42.370724 14
10.962763 2.6658635 42.361412 15
23.010841 2.642324 42.385605 10
90.654243 2.7809334 42.279762 6
93.297867 2.7089391 42.285709 3
-6.0085034 2.9523463 42.217224 14
-5.9975505 2.9337554 42.25375 14.5
10.976493 2.8796337 42.356499 13
11.095815 2.8140008 42.388039 14
27.277948 2.8877747 42.341557 10
28.499073 2.8373337 42.388229 10
29.594461 2.9784191 42.37487 10
29.690187 2.9282639 42.362545 10
29.940207 2.961144 42.24155 10
31.520828 2.988421 42.287735 10
93.284576 2.8993018 42.258186 4.5
95.874947 2.9601982 42.318256 2
-6.0438824 3.1054997 42.391937 14
-5.9873905 3.081085 42.340614 15
10.961076 3.1313694 42.316307 14.5
22.968807 3.1232593 42.395939 10
28.746559 3.1963315 42.393166 10
29.409075 3.1148589 42.365425 10
31.497759 3.0035052 42.257538 10
31.633125 3.0061159 42.279953 10
32.702976 3.0011873 42.224487 10
90.560043 3.0158257 42.242321 7
93.306091 3.0910356 42.279274 6
95.813278 3.1034026 42.355499 4.75
96.748978 3.105459 42.299622 3.5
-6.021266 3.2986939 42.356903 14
-5.9860725 3.374779 42.240688 15
10.935294 3.3220105 42.33836 14.5
22.906828 3.3057361 42.213215 11
27.556633 3.3540726 42.346539 10
27.899078 3.3441534 42.25531 10
28.761772 3.3027866 42.334156 10
30.738235 3.3347871 42.23362 10
32.341789 3.286623 42.22052 10
32.495842 3.2917588 42.251114 10
95.807106 3.2854311 42.352791 8
96.687874 3.3720918 42.289356 9.5
10.95994 3.4592557 42.316933 15
11.021661 3.4387684 42.269772 14
31.366989 3.4657922 42.231102 10
31.61998 3.4873073 42.300987 10
34.682697 3.4866602 42.251011 10
93.315178 3.5925934 42.262344 10
93.464615 3.5267515 42.35878 9.5
96.701996 3.4841976 42.222443 12.25
96.821365 3.5680184 42.303589 13.6
-6.0681343 3.649302 42.221172 15
23.028164 3.773514 42.349873 11
30.213511 3.7058997 42.305992 11
93.290375 3.7210951 42.252007 11
93.482018 3.707365 42.337017 11
31.696817 3.8060651 42.316044 11
31.954557 3.9916389 42.320488 11
34.542477 3.9894273 42.213287 11
93.280373 3.8520153 42.263111 12
28.228134 4.1950903 42.394939 11
28.715914 4.0526419 42.366776 11
29.455599 4.1326561 42.332832 11
31.516266 4.1093192 42.284096 11
31.799473 4.1107655 42.264259 11
32.020401 4.0843296 42.329796 11
32.257893 4.0698986 42.234356 11
32.616371 4.0966625 42.209557 11
22.885597 4.3788514 42.362789 12
30.531031 4.2445793 42.308029 11
30.780312 4.2789254 42.335999 11
31.169992 4.3031478 42.313328 11
31.381332 4.3858018 42.294884 11
34.673248 4.3727045 42.275795 11
101.28548 4.3805065 42.390339 12
22.90653 4.497817 42.35537 12
29.0138 4.5632868 42.257881 12
30.51618 4.5612502 42.341904 12
30.960014 4.5124235 42.301479 12
31.312542 4.4248343 42.30191 11
31.637415 4.4814296 42.271954 11
101.27608 4.4766164 42.350117 12.928572
22.974472 4.697135 42.320702 12
30.801554 4.6099935 42.344269 12
101.15863 4.7182698 42.297588 13.5
101.24314 4.6699371 42.31889 13.166667
101.46822 4.7183337 42.276993 10
22.966621 4.8199053 42.226971 13
32.035297 4.8234382 42.304501 12
32.566544 4.9250026 42.290691 12
101.12885 4.9061589 42.322491 13.333333
101.27019 4.9058781 42.312325 11.875
111.53481 4.9724779 42.28138 10
28.441093 5.0200891 42.337852 12
101.13982 5.0888228 42.312775 13
101.24986 5.0999398 42.316669 12
28.83205 5.272604 42.385002 13
29.038181 5.3140402 42.35183 13
30.329876 5.3884058 42.202465 13
30.786848 5.2429104 42.315491 12
30.930283 5.2299557 42.32531 12
31.363934 5.3489909 42.310051 12
31.561615 5.3659945 42.267174 13
34.463531 5.3300309 42.201904 12
34.625641 5.3209891 42.275543 12
101.09564 5.3101902 42.31356 14
101.22307 5.3009353 42.305206 13
25.1437 5.4542756 42.377277 13
27.333464 5.4168105 42.386276 13
29.280373 5.5861249 42.312019 13
29.771748 5.4747224 42.320312 13
29.872839 5.513979 42.303684 13
30.305111 5.5239592 42.273617 13
30.428268 5.4989142 42.300583 13
30.723454 5.4022465 42.295525 13
30.949905 5.5443087 42.256828 13
31.249249 5.5895147 42.292767 13
31.430851 5.4895487 42.256157 13
31.651276 5.4872618 42.247948 12
101.06833 5.4748826 42.311989 13.75
101.2263 5.4194584 42.348618 13.5
111.66901 5.5063047 42.27924 11
26.180939 5.6083136 42.390572 13
31.216293 5.6197114 42.300762 13
31.53677 5.6451325 42.235996 13
31.760437 5.678546 42.220856 13
32.045982 5.7130542 42.249542 13
100.79914 5.7008162 42.351139 12
100.90617 5.6879277 42.333538 12.625
101.05728 5.6808605 42.322449 12.25
101.21907 5.685276 42.350609 11
32.47818 5.8083272 42.292511 13
100.56881 5.9473066 42.352089 12
100.69229 5.8909626 42.378021 12.666667
101.08183 5.8783927 42.256149 12
101.32594 5.9952688 42.366669 12
100.29814 6.0709405 42.37674 13
101.16579 6.0004387 42.205193 12
111.69965 6.0501952 42.290279 12
67.760185 6.7661653 42.352112 14
68.074799 6.7187881 42.395859 13
68.675468 6.7461686 42.291313 13
69.909607 6.7284131 42.329735 13
71.207397 6.7818737 42.322784 12
68.855156 6.9010587 42.397827 13
69.577599 6.9973984 42.381645 13
73.936714 6.9530168 42.300629 14
74.765602 6.9658537 42.272476 14
74.813332 6.9511299 42.271061 14
75.059601 6.9597559 42.247559 14
75.312363 6.9721751 42.204948 14
75.533447 6.9560666 42.259567 14
69.853554 7.0861187 42.387131 13
70.17662 7.1922402 42.293045 13
70.648773 7.1569619 42.396843 13
73.751617 7.0300813 42.279114 14
73.95726 7.0441828 42.311371 14
74.092865 7.0344934 42.288788 14
74.699738 7.0390654 42.243481 14
75.074318 7.0051146 42.223816 14
75.453217 7.0254788 42.224834 14
76.063858 7.0023651 42.230587 14
76.667839 7.1278524 42.256905 14
71.104141 7.3760982 42.319157 13
70.58429 7.7561908 42.395199 14
74.235481 7.7083573 42.294327 15
74.535934 7.7541685 42.274731 15
74.69368 7.7058368 42.284683 15
75.043579 7.655757 42.255745 15
75.27063 7.7268038 42.234497 15
75.557053 7.6629295 42.236763 15
75.645988 7.654861 42.25301 15
76.045151 7.7077436 42.20322 15
76.648438 7.8468161 42.214844 15
71.047699 8.4368095 42.338921 13
6.9279671 -0.67299426 42.501572 5
1.3187082 -0.46405903 42.50639 3
1.3125677 -0.29904327 42.480164 3
6.8522158 -0.31927055 42.516682 4.5
1.3332542 -0.11877173 42.53212 5.75
6.7862315 -0.094366945 42.496925 6
6.8148217 -0.096938506 42.483948 6
1.2848556 0.12494107 42.495846 8.8888893
6.8428006 0.098902389 42.520153 7
-3.4019656 0.35971799 42.561714 9
-3.3187528 0.384866 42.444843 9
1.1341053 0.34515017 42.425209 14
1.260692 0.22869548 42.523926 10
1.7186191 0.38632163 42.496681 11.75
3.6939304 0.26763475 42.521385 11.666667
6.8855357 0.31124002 42.491436 8.04
10.871651 0.37300968 42.459114 8
-3.336091 0.50012583 42.500324 9.5
-0.14997149 0.44055897 42.401958 11
1.0526638 0.5034709 42.520275 14
1.681617 0.51177108 42.517288 13.5
1.8480097 0.55326438 42.404182 13.8
6.9289751 0.46753815 42.513058 9.045455
7.0113087 0.53743851 42.541534 9.5
10.867174 0.42583936 42.407028 8
-3.4112632 0.64518672 42.531967 10
-3.3466194 0.6699276 42.45443 10.2
6.987658 0.65217298 42.486073 9.3999996
7.0214229 0.67950982 42.441719 9.5333338
10.902382 0.73367929 42.492546 9
22.960526 0.71160865 42.497692 8
23.63743 0.68683827 42.568779 8
23.896904 0.7460686 42.578743 8
26.526669 0.76121199 42.513542 8
-3.4152565 0.90708286 42.442787 11
-3.3851423 0.86980677 42.495449 11
23.077261 0.87633401 42.589214 8
-3.4742858 1.0560919 42.503639 12
10.905683 1.0692327 42.502193 10
22.915602 1.1441215 42.552738 8
23.097103 1.1268365 42.578156 8
23.653383 1.117196 42.536133 8
23.8412 1.1860847 42.581955 8
24.121403 1.1732428 42.57785 8
24.261545 1.1135869 42.533508 8
24.455769 1.1356628 42.492111 8
24.706558 1.1364312 42.494347 8
24.946817 1.0837153 42.456642 8
25.132755 1.0757097 42.472275 8
25.232502 1.1790111 42.473885 8
10.907283 1.3356936 42.518402 10.7
22.952843 1.2783041 42.543045 8
23.009499 1.2053738 42.577553 8
23.677734 1.2731161 42.545429 8
23.86059 1.2365549 42.510139 8
24.315477 1.2740312 42.52562 8
24.692541 1.3099127 42.502533 8
24.872925 1.3122367 42.527969 8
25.239944 1.2201678 42.521782 8
10.916581 1.4783071 42.47427 10.833333
22.499739 1.4912404 42.564301 8
27.462072 1.5584381 42.490921 8
28.424164 1.4458313 42.482964 8
28.64753 1.5725831 42.407764 8
30.071072 1.4672807 42.463409 8
-6.0207376 1.7323543 42.527176 11
10.929461 1.6618211 42.50106 11.75
22.965166 1.7086552 42.470913 9
23.00507 1.6052693 42.50869 9
23.780624 1.6930827 42.582329 9
23.958645 1.6444123 42.589775 9
24.329771 1.7735742 42.584854 9
-6.0318527 1.9863305 42.552887 14
10.927545 1.9109346 42.466576 12.5
11.116853 1.9572722 42.482697 11.666667
22.786251 1.9198911 42.548531 9
22.915375 1.9376498 42.569267 9
23.195614 1.9194441 42.584045 9
23.537682 1.9025137 42.588455 9
23.686596 1.9505665 42.559986 9
24.12665 1.9350988 42.404945 9
24.454102 1.9585038 42.439362 9
24.629471 1.987393 42.478661 9
-6.0256553 2.0819595 42.470585 13.333333
10.707558 2.1614475 42.512222 12
10.906796 2.0937581 42.450634 12.625
11.060505 2.0499833 42.450344 13
22.900719 2.0736067 42.53231 9
23.509935 2.1309137 42.574768 9
23.890095 2.0806975 42.546532 9
24.261183 2.0741482 42.452595 9
24.715305 2.1130183 42.481689 9
25.467726 2.0628185 42.414719 9
25.823322 2.1014509 42.42408 9
-6.0289521 2.3015032 42.475456 14.166667
10.747644 2.2068377 42.429237 14
10.929384 2.2998309 42.493305 13.5
11.109917 2.2610147 42.45977 11.5
11.200867 2.2277846 42.551929 11.5
22.488832 2.2928674 42.54567 9
22.919788 2.2427428 42.556023 9
23.91518 2.2104225 42.568153 9
30.140141 2.3207331 42.444504 9
31.057121 2.3214908 42.423981 9
-6.0182118 2.5394278 42.523788 14.5
10.752632 2.5264888 42.512146 14.5
10.872779 2.536509 42.466751 14.4
11.05026 2.5038469 42.413769 13
22.984642 2.5397546 42.534599 10
23.730984 2.5839543 42.576126 10
-6.0265226 2.7540483 42.511223 13
10.75514 2.6295877 42.570168 15
10.927341 2.7215555 42.468586 13.5
11.021538 2.6255994 42.43412 13
22.796692 2.7763455 42.518513 10
22.915405 2.6608868 42.524498 10
23.122902 2.7229216 42.549706 10
23.689589 2.7489858 42.538666 10
24.035826 2.7849703 42.402824 10
25.629295 2.6840394 42.451908 10
-6.0267439 2.9693563 42.509045 14
10.960048 2.9608591 42.416412 14
22.9098 2.8782156 42.512016 10
23.328163 2.9324839 42.589943 10
23.715815 2.9127879 42.592251 10
23.888744 2.9049637 42.561195 10
24.140465 2.9717996 42.5261 10
24.586273 2.8936658 42.473324 10
24.631922 2.9185038 42.468422 10
25.327831 2.9392638 42.443314 10
25.512589 2.9396753 42.438396 10
25.650455 2.9112115 42.528549 10
53.22739 2.9646611 42.537605 8
93.130356 2.8827114 42.529938 4.5
101.40623 2.9516063 42.586361 5
10.913233 3.0820608 42.498192 14.2
22.475586 3.1019206 42.513126 10
22.97208 3.0171461 42.570755 10
23.037022 3.1129866 42.599899 10
23.543736 3.1483028 42.46682 10
23.717201 3.0640869 42.56805 10
26.048447 3.1120193 42.487309 10
93.15654 3.087178 42.517338 6
96.553772 3.0558503 42.446491 3
101.43697 3.1333554 42.591137 6
10.933829 3.2971096 42.515713 14.333333
22.926346 3.259388 42.463539 11
93.35321 3.28686 42.446609 7.5
-6.0139503 3.4373147 42.52095 15
-5.9694014 3.4471078 42.579556 15
10.720397 3.549969 42.470406 15
10.928921 3.4728165 42.456711 15
22.753788 3.555783 42.533279 11
22.881798 3.5208619 42.531391 11
24.62669 3.5427463 42.556618 11
101.48776 3.4691448 42.587658 8
11.027069 3.7524245 42.533592 15
22.797321 3.605335 42.422066 11
22.920589 3.6726463 42.529205 11
23.414005 3.7736578 42.578377 11
23.853119 3.6304631 42.480194 11
24.123079 3.7809761 42.558842 11
24.519936 3.72823 42.496742 11
101.4389 3.6289206 42.592155 9
22.459003 3.9115179 42.535126 11
23.599003 3.968322 42.581436 11
24.10446 3.809422 42.592407 11
24.299351 3.8403802 42.541531 11
25.014452 3.8888974 42.560123 11
25.371109 3.9185035 42.546604 11
101.34217 3.9003065 42.575657 10.454545
22.934942 4.0882564 42.461956 12
25.08139 4.0884714 42.567554 11
31.025572 4.0152159 42.415085 11
101.32552 4.1189942 42.536259 11.6
101.41732 4.1548328 42.489006 12
22.739836 4.3855257 42.523262 12
22.840881 4.3587337 42.526936 12
101.33646 4.3029714 42.45602 12.818182
101.45861 4.3128805 42.508736 9
10.495134 4.4544168 42.562202 15
22.826069 4.470295 42.521832 12
23.419033 4.4492617 42.539829 12
23.998619 4.4861736 42.53397 12
24.037727 4.5436831 42.566498 12
24.275368 4.598526 42.597839 12
24.659664 4.5243235 42.567436 12
25.128878 4.5680079 42.48912 12
27.766239 4.5616384 42.455158 12
29.34376 4.5595031 42.411793 12
29.554934 4.4749622 42.40324 12
53.24305 4.449038 42.591473 9
101.27108 4.4910436 42.515556 13.323529
22.975399 4.748601 42.480877 13
23.861137 4.6055479 42.575039 12
24.433075 4.7165561 42.56105 12
24.741867 4.6795492 42.530228 12
25.065063 4.6845136 42.581787 12
25.350393 4.7947483 42.558033 12
25.722921 4.7622218 42.511009 12
101.19115 4.6893635 42.424862 15
101.26483 4.6658535 42.507183 14.470589
23.005022 4.9958763 42.566238 13
25.381088 4.8410649 42.55048 12
25.715826 4.809123 42.554146 12
25.924816 4.8145556 42.490112 12
101.16261 4.8271532 42.422729 10
101.27459 4.8507881 42.445972 14.5
22.855835 5.1760726 42.524143 13
87.083397 5.1538639 42.410316 13
101.18479 5.0161052 42.412407 10
22.726643 5.2309275 42.487888 13
22.840706 5.2259388 42.515442 13
23.434649 5.2542014 42.535156 13
23.739738 5.31458 42.46542 13
23.868044 5.3096027 42.566849 13
24.080786 5.2405772 42.552921 13
24.303692 5.2673674 42.571438 13
24.406881 5.3632064 42.505524 13
27.126019 5.365952 42.449432 13
27.916988 5.3555546 42.424175 13
23.341684 5.4254093 42.550262 13
23.914078 5.5271406 42.540859 13
24.3466 5.5609331 42.596397 13
24.440033 5.4263778 42.598976 13
24.633156 5.5012007 42.462189 13
24.998894 5.5971451 42.55381 13
25.083647 5.5271745 42.561649 13
25.368191 5.5871329 42.508827 13
26.784893 5.41887 42.451408 13
100.7482 5.405169 42.430367 11
101.00859 5.5413618 42.421036 10
101.2323 5.4804573 42.447182 14
23.991476 5.6597376 42.508511 13
25.312538 5.7284923 42.50613 13
25.714846 5.6741705 42.514572 13
25.892668 5.725574 42.522644 13
26.600967 5.6016283 42.443451 13
100.87638 5.7293878 42.418579 11.333333
101.13495 5.7557664 42.439983 14.666667
53.354843 5.9202113 42.59544 13
100.99022 5.9399796 42.497467 13.5
101.04269 5.827733 42.460339 15
53.016727 6.0466852 42.503311 10
100.88828 6.1140504 42.527809 14.5
101.01671 6.0968771 42.583939 14.5
100.15446 6.3042183 42.497906 13
101.03309 6.2555246 42.418743 12
63.247902 6.5979042 42.526775 14
64.782654 6.5524726 42.488174 13
100.47021 6.476368 42.584675 13
62.762188 6.6114621 42.590332 14
63.067394 6.6348171 42.556606 14
64.431908 6.6454849 42.598915 14
64.683571 6.6488571 42.582184 14
64.908058 6.6695733 42.513962 14
65.489761 6.6339107 42.564247 13.5
65.678337 6.6437216 42.410721 14
65.912308 6.6807261 42.585014 13
66.089417 6.6025887 42.565086 13
66.477371 6.6526728 42.54583 13.25
66.758354 6.7647786 42.499844 14
66.962196 6.7073388 42.516514 13.333333
67.129921 6.7431417 42.528614 13
67.20607 6.7018747 42.557411 13
67.587234 6.7655044 42.535412 14
67.640305 6.7497888 42.483704 13.5
67.907356 6.698595 42.505238 12.75
68.13488 6.7712951 42.475849 13
68.546951 6.7641854 42.511169 13
68.73674 6.7653403 42.511669 13
68.908211 6.6668339 42.486145 13
69.164398 6.7687926 42.528576 13
69.369728 6.7080669 42.456398 13
69.720688 6.7822423 42.462524 13
100.53323 6.6803136 42.533646 14
64.594513 6.9133654 42.585365 14
65.864426 6.8458562 42.581474 13
66.186264 6.8417673 42.548019 13
66.545235 6.8886065 42.565838 13.333333
66.672913 6.8888016 42.529999 13.5
67.260788 6.9937253 42.56963 13
67.532074 6.9045038 42.599014 14
67.930817 6.8408089 42.513908 13
68.051102 6.9777064 42.473534 13
68.294159 6.8599405 42.493607 13.5
68.687263 6.8810668 42.498306 13.333333
68.910599 6.900382 42.45866 13.5
69.299805 6.8641214 42.490677 13
69.751205 6.8627329 42.475159 13
69.988533 6.9973903 42.411499 13
71.190628 6.8556199 42.440086 12
65.181625 7.1215467 42.572884 13
66.588524 7.1461344 42.579819 13
66.694901 7.0566311 42.554138 14
67.813828 7.1554971 42.523769 13
68.083557 7.1581697 42.495644 13
68.94532 7.0831461 42.528316 14
69.344429 7.0895481 42.41127 13
69.559387 7.177959 42.50404 13
69.615791 7.0018573 42.433601 13
70.7416 7.0893478 42.45084 13
64.747925 7.2417336 42.579174 13
66.440422 7.207047 42.562836 13
67.494339 7.3125014 42.595928 15
67.903267 7.2210546 42.529228 14
68.852249 7.2403431 42.545853 13
71.170959 7.3963079 42.451965 12
100.11409 7.368062 42.552929 15
64.93985 7.4363499 42.562759 14
65.542709 7.4743981 42.570518 14
66.740082 7.4991264 42.571522 14.5
66.864311 7.5353184 42.529411 14
67.00444 7.4373155 42.572197 14
67.209648 7.4527931 42.57473 15
67.423576 7.4399633 42.565521 15
67.705765 7.5230517 42.543442 14.75
67.895454 7.4988189 42.541241 14
68.448593 7.4063191 42.507904 14
68.778305 7.5655031 42.523739 14.5
68.942413 7.5904069 42.539192 15
69.069702 7.4839997 42.482437 14
69.401535 7.5475965 42.523781 14
69.713158 7.5328031 42.464668 14
70.040985 7.500783 42.579906 14
70.36338 7.597753 42.462692 14
70.543884 7.5315061 42.428169 13
100.18882 7.493289 42.518051 15
65.111328 7.61164 42.596138 13
66.375977 7.6737537 42.583679 14
66.603783 7.6527262 42.548523 13
66.906662 7.6978712 42.5177 14
67.158936 7.6170549 42.565796 15
67.38858 7.6049452 42.548538 14
67.886475 7.6691575 42.547691 13.6
68.058777 7.7133927 42.503162 14
68.264 7.7356467 42.538342 14.666667
68.552116 7.7244811 42.536663 14
68.610146 7.6551614 42.566833 14
68.880409 7.6389337 42.487049 14.333333
69.324051 7.6234612 42.536983 14
69.426086 7.6711712 42.503227 15
69.616409 7.7653484 42.495216 14
70.691772 7.663434 42.458298 14
66.513107 7.8063555 42.580032 15
67.978752 7.8640323 42.560543 14
68.000053 7.9205675 42.582478 15
69.151176 7.8734455 42.544014 15
69.295837 7.907135 42.539459 14
69.508133 7.879529 42.504395 14.5
69.625961 7.8673711 42.421989 14
69.860909 7.956018 42.50909 14
70.490112 7.8825712 42.416164 14
67.60952 8.0264473 42.498802 14
68.653175 8.1262932 42.5247 14
69.500412 8.0854216 42.429375 14
70.516754 8.0086298 42.426102 14
70.859177 8.0099335 42.412361 14
67.26857 8.3566942 42.591972 15
67.705956 8.3472776 42.557083 15
67.894981 8.2996464 42.584053 15
68.425316 8.2177515 42.525116 15
68.769669 8.3743286 42.53574 15
68.946823 8.2920904 42.515118 15
69.213127 8.3206787 42.545662 14
69.650986 8.3225899 42.481613 15
71.103081 8.2991247 42.460396 14
66.970306 8.5627098 42.53669 14
67.370514 8.4431086 42.581741 15
67.919022 8.5696821 42.518593 13
69.575249 8.4030228 42.514835 15
70.23761 8.4127541 42.507904 15
70.537468 8.4628706 42.546532 15
70.904182 8.5332899 42.562237 13
71.051826 8.5316391 42.573975 13
66.564056 8.6406775 42.591263 14
67.917175 8.6716976 42.512016 14.5
69.016502 8.6181974 42.575592 15
69.459015 8.7885761 42.494019 15
69.978882 8.7876377 42.468918 15
70.188347 8.7480793 42.477287 15
70.507317 8.6829109 42.580505 15
71.012497 8.6060362 42.57333 13
69.478088 8.9969521 42.448475 15
64.876877 9.383604 42.57058 14
70.87973 9.3687735 42.571842 14.5
67.816345 9.5952091 42.537151 15
69.365417 9.5913677 42.470528 15
70.893997 9.5891905 42.590714 14
67.791397 9.6516495 42.507736 15
70.892403 9.6983194 42.572762 14
67.91037 9.8055782 42.532154 14
71.052757 9.8579035 42.5741 14
70.906853 10.472994 42.595322 15
70.813797 10.758842 42.464363 15
71.089569 11.025511 42.57058 15
1.3028554 -0.44740996 42.701393 1.9285715
1.3203363 -0.33253062 42.671452 2.5
2.0384774 -0.27803427 42.701031 2.8333333
3.7029319 -0.21696034 42.617458 1.2
3.8783402 -0.27979499 42.72747 0.75
4.5493584 -0.32004923 42.797855 2
6.9120255 -0.29289046 42.693836 4.5
1.3292556 -0.18056679 42.601852 0.5
2.0283537 -0.10701215 42.746582 5
3.6692257 -0.050448522 42.626492 4.5
6.8959994 -0.090101682 42.721619 6
1.2902768 0.11487505 42.638542 8.5
2.1275134 0.19413018 42.679794 9
3.8338456 0.11405466 42.669579 7.833333
6.9168959 0.075065762 42.713356 7
1.2719935 0.23105431 42.653126 10.666667
1.7501395 0.22334817 42.771637 9.5
2.2009873 0.38411635 42.657299 11.5
3.6730099 0.22266477 42.675171 12
3.8213334 0.33863285 42.614555 12
6.9100313 0.29955024 42.681263 8
7.0978823 0.39857954 42.600105 9
23.573296 0.29346448 42.600258 7
1.0715553 0.48040932 42.682255 13.75
1.6578181 0.49854755 42.710793 12.9
2.1956334 0.58264804 42.634491 14
2.3492918 0.53919816 42.753799 13.75
6.9415646 0.43963259 42.633194 9
7.0566001 0.42700464 42.693596 9
7.2289925 0.42638883 42.771999 9
-3.3273468 0.62475419 42.724983 10
6.9995747 0.61132723 42.627922 10
7.123426 0.78119695 42.664669 11
7.2033038 0.78345335 42.769409 11
24.306643 0.80931336 42.604416 8
22.897053 1.116439 42.602394 8
23.158583 1.1428567 42.605133 8
23.603245 1.0355501 42.619526 8
23.93602 1.1463299 42.606808 8
23.782951 1.222369 42.697731 8
27.06728 1.4257317 42.621101 8
10.930698 1.7765642 42.611465 11
22.959511 1.7164499 42.71637 9
-6.0211778 1.8792695 42.703106 13.666667
22.933575 1.9156289 42.630047 9
23.358879 1.9711025 42.631126 9
23.525824 1.9133855 42.641438 9
23.694965 1.931108 42.638 9
53.50211 1.8372564 42.616825 8
-6.0342679 2.0864253 42.657478 14
11.003346 2.1508253 42.665604 12
22.979588 2.0907707 42.610359 9
23.326841 2.0892076 42.654305 9
23.460938 2.0595465 42.613476 9
52.787544 2.1467791 42.749428 8
52.820648 2.1304877 42.724258 8
-6.0247021 2.2705688 42.742722 15
-5.9911957 2.2543316 42.723747 14
22.915302 2.315661 42.693977 10
26.348726 2.3843784 42.764046 9
27.970522 2.3184917 42.600838 9
-6.020391 2.4931262 42.708813 13.666667
-5.9610634 2.5107865 42.679333 13
10.99428 2.5765581 42.668053 13
22.935051 2.5006289 42.700653 10
-5.9865141 2.719183 42.744862 14
11.02821 2.6043334 42.604431 13
23.051598 2.7475767 42.612667 10
23.710497 2.7266455 42.608124 10
-5.9706173 2.9847507 42.670532 14
22.940561 2.846087 42.609787 10
23.785681 2.9128206 42.621651 10
23.818893 2.8643615 42.612888 10
24.120512 2.8066993 42.624855 10
52.790306 2.9128661 42.725319 9
52.828537 2.9151287 42.68663 9
96.580536 2.9655917 42.733032 2
101.36694 2.9497333 42.661407 4.9444447
-6.001812 3.0668259 42.776787 15
-5.9745178 3.1523294 42.715111 15
22.939758 3.1569638 42.68203 11
23.019836 3.0384398 42.62236 10
23.886169 3.0935395 42.60474 10
31.193863 3.1281731 42.785282 10
31.503689 3.1411221 42.686378 10
31.753063 3.1258373 42.668518 10
31.819324 3.120501 42.78508 10
32.258968 3.0805707 42.624229 10
101.36768 3.1165807 42.680744 6
101.41085 3.1301265 42.614029 6
-5.9849095 3.252604 42.662048 15
22.952291 3.2874088 42.623241 11
31.332191 3.2632592 42.691238 10
31.558764 3.229924 42.670162 10
31.967505 3.2513316 42.713306 10
32.185711 3.2223735 42.665741 10
32.221901 3.2229502 42.658489 10
53.353142 3.3820961 42.761826 9
96.594734 3.2907255 42.783211 9
101.36002 3.291183 42.68734 7
101.43173 3.2984393 42.629791 7
22.939043 3.5086539 42.616966 11
23.505035 3.5856118 42.62484 11
23.70466 3.5582001 42.639149 11
96.695602 3.4623995 42.76107 12.6
101.36323 3.4618909 42.70459 8
101.42506 3.475734 42.630634 8
22.973782 3.703233 42.602386 11
23.017735 3.7850909 42.614151 11
23.413742 3.6100631 42.625099 11
23.602974 3.6611552 42.651985 11
52.751614 3.6910622 42.7327 10
52.803288 3.6945319 42.748695 10
101.35919 3.6607456 42.662773 9
101.42216 3.6272395 42.634617 9
22.962587 3.9519928 42.629082 12
23.027763 3.8859911 42.624977 11
23.483768 3.8260472 42.636295 11
25.344288 3.9031358 42.667686 11
101.32099 3.8508918 42.658169 10.071428
22.921572 4.0968332 42.700249 12
25.387508 4.0167933 42.633011 11
101.32191 4.0994697 42.67577 11.4
101.4306 4.1332936 42.752132 11.666667
23.056074 4.3304482 42.667072 12
101.31985 4.3136487 42.646015 12.5
101.45107 4.3155956 42.73193 12.5
23.342899 4.5421228 42.609528 12
23.509674 4.5171118 42.643684 12
23.648985 4.5947943 42.63068 12
24.73848 4.4828506 42.622238 12
52.768173 4.4777222 42.757835 11
53.300598 4.4199419 42.694397 11
101.30922 4.4949284 42.62141 13.8
101.47392 4.4783764 42.791264 14
22.757277 4.7241659 42.658752 12
23.476213 4.6193256 42.629627 12
23.653727 4.7797341 42.607155 12
100.99556 4.6428528 42.641258 9
101.26582 4.6196957 42.612019 15
22.936419 4.8865066 42.680828 13
107.07439 4.8221793 42.641308 11
14.978074 5.1007333 42.703903 13
23.082001 5.1594458 42.636482 13
106.77747 5.1373115 42.648041 12
106.82764 5.1580782 42.695793 12
107.0762 5.0333691 42.777046 11
22.901838 5.2566371 42.606049 13
23.071918 5.3042121 42.641472 13
23.529644 5.2459955 42.625504 13
23.670946 5.3971314 42.620667 13
24.093319 5.2920513 42.638771 13
22.49725 5.542418 42.648552 13
23.144604 5.5775023 42.648979 13
23.382706 5.4755464 42.607582 13
23.752888 5.4265542 42.615952 13
100.90872 5.5129189 42.603531 10
106.62946 5.4862938 42.708118 13
106.80618 5.4182949 42.679138 12
22.910145 5.6637716 42.708214 14
23.088434 5.7032914 42.645916 13
53.192852 5.9702969 42.740475 10
53.245552 5.9623575 42.714546 13
53.306168 6.1806602 42.772724 13
100.26801 6.1282635 42.743877 11
100.76484 6.0729322 42.763794 11
100.9139 6.1048689 42.700821 13
101.01979 6.0774555 42.654049 15
54.517483 6.3392816 42.686829 14
54.611183 6.3461728 42.777252 14
56.340843 6.3383737 42.79694 13
59.059826 6.3863268 42.676666 13
62.226219 6.3660622 42.799587 12
100.33701 6.3741355 42.694782 13
100.83779 6.2793083 42.746468 11
59.417137 6.5051122 42.75592 14
59.660187 6.5648556 42.796341 14
60.288086 6.4840193 42.786346 13
60.459129 6.464047 42.79422 14
60.864815 6.5145316 42.708076 13.5
61.037041 6.5696402 42.70509 14
61.518711 6.5151606 42.662613 14
61.883305 6.583487 42.700542 14
62.065796 6.5292215 42.780731 14
62.36713 6.5803008 42.738251 13
62.507626 6.5665054 42.764839 14
63.014572 6.5912457 42.7257 13
63.228951 6.5692821 42.770905 13
64.078529 6.5802226 42.639069 13
64.357567 6.5623603 42.69519 13
64.527054 6.5105276 42.671547 13
64.685135 6.495563 42.688843 13
65.398026 6.5594659 42.607368 13
66.356445 6.5297461 42.617393 12
100.12624 6.4160795 42.688553 12
100.34938 6.4987016 42.650749 14
100.50151 6.4981523 42.749512 13
100.62549 6.5256696 42.676945 11
106.76643 6.4301844 42.707291 13
57.729309 6.6099501 42.78434 13
60.5112 6.727294 42.775421 13
60.600288 6.6301808 42.786064 13
61.235397 6.7128539 42.764915 13
62.112865 6.6975818 42.79538 13
62.493423 6.6856136 42.766823 14
62.716373 6.6043501 42.798832 14
62.831722 6.7373247 42.779892 13
63.099491 6.6780391 42.714127 14
63.33894 6.6923728 42.778156 13.666667
63.591244 6.6397057 42.701912 14
63.75515 6.6979771 42.671471 14
63.931145 6.7253413 42.654312 13.25
64.193794 6.6989603 42.7421 14
64.261673 6.7386055 42.650711 14
64.507507 6.6788626 42.687599 13.5
64.652946 6.7839127 42.656456 13
64.914429 6.7313595 42.631725 14
65.061829 6.7191858 42.617538 14
65.273514 6.6876378 42.670105 13
65.700966 6.7219434 42.640659 14
65.875687 6.6609044 42.6437 13
66.191063 6.6661301 42.604065 13
66.601288 6.6610203 42.619125 14
60.99469 6.8282166 42.795647 13
62.329945 6.8579016 42.791805 13
62.590366 6.8294878 42.779629 14
62.777779 6.8125625 42.766594 13
62.924988 6.9049916 42.7239 13.5
63.097878 6.894557 42.707352 13
63.212059 6.9874029 42.749641 13
63.483192 6.9205561 42.798386 14
63.738659 6.9099889 42.713608 13.666667
64.062286 6.892458 42.73394 14
64.334045 6.8711414 42.741322 14
64.551361 6.872313 42.711742 13.666667
64.743469 6.9930148 42.673279 14
64.843826 6.8173447 42.652012 14
65.101532 6.8949051 42.669937 14
65.271812 6.8549852 42.653259 13.5
65.937691 6.9555178 42.640717 14
68.155563 6.8766003 42.61496 14
62.214897 7.0980406 42.772171 13
62.768456 7.0440168 42.70945 13
63.063927 7.0563254 42.783669 14.5
63.715 7.1242614 42.735233 15
63.90284 7.0125456 42.770981 14
64.369591 7.0464187 42.752594 14
64.631752 7.1877289 42.741486 15
64.930008 7.1585979 42.710148 15
65.10231 7.0994215 42.715633 14.5
65.482109 7.1089797 42.681576 14.5
66.08725 7.0014744 42.745308 14
67.038162 7.1158657 42.671757 14
67.302238 7.1228724 42.605152 14
100.49065 7.1053581 42.726517 13
61.883984 7.3248224 42.79549 14
62.686142 7.2992454 42.754883 14
62.896545 7.3962593 42.754189 14
63.090286 7.3058929 42.781658 14.5
63.531342 7.3299551 42.76474 15
63.952217 7.3327541 42.719643 13.5
64.13942 7.3347187 42.730297 15
64.274925 7.3183327 42.613911 14
64.432861 7.310256 42.703423 14.5
64.723488 7.283133 42.723225 14.833333
64.917595 7.3137226 42.696846 14
65.107635 7.3673143 42.709831 14
65.25618 7.282517 42.679531 14.75
65.457016 7.368289 42.62645 14
65.632309 7.3416262 42.672287 15
65.881859 7.3691311 42.688843 15
66.059982 7.3309956 42.61993 14.5
66.316566 7.3137574 42.622719 14.666667
66.53257 7.3840041 42.637615 15
67.10881 7.2629385 42.607582 15
67.581406 7.2819428 42.670551 14
68.432205 7.3961616 42.611225 14
68.695503 7.3213968 42.605686 14
58.310284 7.5939245 42.766174 14
62.484535 7.4497609 42.793167 15
62.808266 7.5791807 42.798523 14
63.132023 7.4440184 42.764469 15
63.349937 7.5591512 42.737625 15
63.512035 7.5174394 42.74757 14.333333
63.72316 7.4397335 42.742401 14.666667
63.998756 7.4430308 42.766788 15
64.066757 7.4904604 42.715065 14.75
64.361656 7.5422196 42.741966 15
64.465347 7.5148902 42.744587 14.75
64.673439 7.4175096 42.745216 14
64.827202 7.5027795 42.721008 14
65.06588 7.4849119 42.701485 14.5
65.265038 7.5511045 42.68856 14.5
65.574097 7.5034103 42.657711 14.5
65.667542 7.4435186 42.681499 14.5
65.960846 7.5595703 42.610466 15
66.055298 7.4786029 42.631817 14
66.356529 7.4158297 42.665222 15
66.90686 7.5088058 42.655174 14
67.35672 7.5145402 42.61805 14
67.55481 7.5468402 42.643337 15
62.269302 7.6797113 42.775074 14
62.914825 7.7175026 42.752613 14
63.304512 7.6255894 42.757683 15
63.74361 7.6815972 42.732468 14.666667
64.098198 7.6862855 42.724724 14
64.531425 7.7263694 42.74588 15
64.636688 7.6073399 42.73687 15
64.953514 7.7352219 42.762619 15
65.130989 7.7234559 42.680584 14.333333
65.485535 7.6886425 42.751766 14.666667
65.73613 7.6956401 42.604088 15
65.967232 7.7322989 42.652443 15
66.100914 7.6910238 42.715149 15
66.31694 7.7754321 42.610382 14
66.517029 7.7336092 42.6437 14
66.758705 7.6549892 42.622726 15
67.09082 7.6901264 42.652817 14
67.274918 7.6646857 42.619904 14
62.67469 7.9398823 42.788296 13.5
62.849899 7.8256197 42.747398 14
63.190132 7.8740044 42.773457 14
63.895615 7.8052235 42.76049 15
64.276123 7.826303 42.750252 15
65.140549 7.9067411 42.683922 14.5
67.014496 7.8581429 42.696083 15
67.242271 7.8269997 42.640583 14.5
67.851036 7.9929628 42.612022 15
68.039627 7.9833937 42.699055 15
62.312378 8.0962009 42.784763 13
63.022541 8.1912069 42.789314 15
64.180466 8.115797 42.750458 15
64.692017 8.1443872 42.694813 14.666667
65.298157 8.1515493 42.649563 14.333333
65.960464 8.1623573 42.641304 15
66.328911 8.1750422 42.666222 15
66.625671 8.0458031 42.64703 14
68.333023 8.1553097 42.63599 15
62.869415 8.227622 42.779533 15
64.168427 8.2267246 42.754498 15
65.350586 8.2476349 42.73291 15
65.903275 8.2873344 42.717136 15
66.246323 8.306489 42.775391 15
66.759552 8.29597 42.654572 15
66.894867 8.3002901 42.612522 15
67.805733 8.3659344 42.72271 15
68.515671 8.3857327 42.680664 15
69.529533 8.20753 42.631615 15
70.011589 8.2835875 42.615341 15
62.304592 8.5271559 42.73151 15
62.480267 8.5023432 42.760437 15
65.838219 8.5394659 42.724972 15
66.653641 8.4821978 42.739128 15
66.997574 8.4487782 42.744667 15
67.091705 8.4215288 42.736469 15
67.473213 8.5044241 42.684498 14
67.956497 8.5159035 42.67308 15
68.166145 8.5499611 42.658321 15
68.441597 8.4997101 42.670979 15
68.862282 8.4527903 42.670586 15
69.160522 8.4620762 42.632408 14
69.221077 8.5337934 42.644009 14
69.410439 8.4535465 42.67659 15
69.645424 8.5007763 42.649372 15
70.356506 8.4680233 42.62516 14.5
70.421799 8.5431042 42.621483 15
63.668701 8.6773872 42.702995 15
66.593529 8.6194038 42.675659 15
70.37558 8.7473755 42.659126 15
70.671494 8.6096725 42.717606 13
66.306076 8.9057178 42.64423 15
66.541046 8.8720293 42.607567 15
71.117996 8.8031797 42.641655 14
70.96225 9.1973753 42.627327 15
63.675106 9.2684288 42.712547 14.5
70.921272 9.407011 42.614761 14
71.025185 9.5910072 42.749969 14
63.094162 10.4312 42.729691 15
70.884857 10.503689 42.648857 15
70.869293 10.755731 42.629196 15
69.443604 10.864424 42.651703 15
1.3216392 -0.4416205 42.932312 2.3333333
1.3391094 -0.31625292 42.911957 2.25
1.7933927 -0.20263499 42.871948 3.6666667
4.1064944 -0.29390249 42.899982 1.5
4.5698395 -0.20176634 42.807823 3.5
7.0188665 -0.2495513 42.886475 5.5
-3.1501932 -0.079480954 42.81097 7
1.3504182 -0.10818463 42.961502 2.6666667
1.7638804 -0.10781079 42.860626 5
3.8726132 -0.096914992 42.997921 4.25
4.1284561 -0.046536617 42.911182 5.1999998
6.9740515 -0.020587444 42.927181 6
7.0185652 -0.14987016 42.955986 5.25
1.3272247 0.10688068 42.928467 9
1.7725735 0.11053961 42.813976 8
3.6109223 0.17482167 42.892441 11
7.0659342 0.085874364 42.92197 7
1.1106435 0.36781985 42.92556 13.5
1.2757685 0.24992105 42.905682 10.5
1.8979162 0.35248628 42.845055 11.333333
7.0760746 0.31333047 42.974049 8.166667
-3.3573389 0.58611798 42.889816 10
1.0691044 0.44337311 42.876614 13.9
7.1384306 0.4838725 42.893501 9.1999998
-3.3615799 0.79800856 42.870117 11
1.8501995 0.63402158 42.816933 15
7.192956 0.65896994 42.821983 10
7.285882 0.67374778 42.950706 10.25
-3.4366651 0.87263048 42.831661 11
7.294126 0.80263013 42.977848 11
10.649268 1.609354 42.843311 12
-6.0115337 1.9594247 42.903236 14
10.556599 1.9028938 42.93634 13
47.380909 1.8824888 42.904705 8
47.417809 1.8822768 42.914375 8
-6.0237713 2.0127492 42.844154 14
-5.9969997 2.1815948 42.809772 13
46.930145 2.0705421 42.981876 8
52.842106 2.1496367 42.936993 8
53.069145 2.1953101 42.98378 8
-6.0168743 2.3458705 42.809536 15
-5.9719172 2.3299561 42.954933 13
10.625662 2.229985 42.96682 14
-5.9743328 2.6248121 42.904613 15
47.373425 2.6851835 42.919003 9
-5.9491391 2.9367366 42.945473 13
52.72945 2.8838315 42.981369 9
52.86779 2.9144335 42.988594 9
53.054417 2.9420569 42.980141 9
53.263916 2.9017372 42.99519 8
96.783585 2.9715908 42.845898 2.5
101.37563 2.9489839 42.852528 5
101.45591 2.9484129 42.942162 5
53.254036 3.0411348 42.941666 8
96.718445 3.0843949 42.847954 4.75
101.39589 3.1212323 42.940849 6
101.44598 3.1217225 42.947876 6
53.373825 3.3843198 42.926392 10
96.795418 3.3707359 42.808041 10.5
101.38692 3.2835555 42.915302 7
101.44261 3.2962832 42.948071 7
-5.9593225 3.4901915 42.934097 14
47.329876 3.5002918 42.952454 10
101.36615 3.4522357 42.879757 8
101.45909 3.4671206 42.963432 8
52.793121 3.6932616 42.903442 10
52.819466 3.752697 42.902672 10
53.032814 3.6911724 42.991745 10
53.311188 3.6436203 42.900463 10
101.36409 3.6587834 42.916348 9.1999998
101.46904 3.6694179 42.989124 9.1428576
25.346491 3.8661535 42.945221 11
25.811171 3.9710162 42.953445 11
101.37863 3.9046957 42.91124 10.5
101.45622 3.8799 42.992912 9
47.35556 4.1396122 42.966122 11
53.295639 4.1046019 42.986122 11
101.37623 4.1116271 42.945084 11.8
101.42125 4.0933352 42.859982 11.1875
47.326668 4.34027 42.987823 11
52.810432 4.3923612 42.967316 11
53.357723 4.2964578 42.851959 11
101.35663 4.3102117 42.957195 12.833333
101.45683 4.30193 42.831619 12.722222
107.27965 4.3206921 42.858017 9.5
52.773136 4.4624825 42.854218 11
53.259075 4.4791107 42.941799 9.666667
101.3352 4.4980888 42.953896 13.4375
101.47957 4.5006433 42.883095 12.6
53.330635 4.7494106 42.990753 12
101.15415 4.751153 42.924007 9
101.34064 4.7117248 42.943504 14.2
101.45208 4.6915483 42.86235 14.875
107.174 4.761127 42.82233 11
22.998016 4.878159 42.818283 13
47.338341 4.8944316 42.994019 12
53.3242 4.9153385 42.933636 12
101.3213 4.9290519 42.969326 14
101.48598 4.8076034 42.892548 15
47.279808 5.0818791 42.978226 12
53.360744 5.0984621 42.849457 12
101.15076 5.1086154 42.973972 11
101.27882 5.0314302 42.985115 12
106.78767 5.3941703 42.923626 11
107.09337 5.3039303 42.979752 11
101.33994 5.419426 42.968838 10
22.933382 5.6657224 42.802513 14
101.35126 5.6521945 42.944874 12
53.205185 5.9511008 42.977989 10
106.92262 5.9248385 42.839294 12
53.246651 6.1132536 42.906948 13
100.84398 6.1623797 42.845226 11
52.603752 6.3338308 42.994484 13
55.027443 6.2832737 42.944141 13
55.496277 6.3118978 42.963974 13
55.675217 6.3592572 42.964096 14
55.98605 6.3916564 42.8876 14
56.103043 6.3098235 42.891853 13
56.280396 6.2975388 42.982056 13
56.487461 6.3021088 42.920933 13
56.696758 6.3563619 42.924725 13.666667
56.835453 6.3356814 42.997108 13
57.091618 6.3889079 42.82106 14
57.474541 6.3710351 42.990105 14
57.67215 6.3721161 42.872395 13
57.845695 6.3387117 42.884109 13.5
58.066795 6.3866634 42.896126 14
58.261326 6.3334789 42.946465 13
54.51685 6.4145784 42.955517 14
55.408245 6.456408 42.997784 13
55.90662 6.4460936 42.891235 14
56.341156 6.5346675 42.860851 14
56.520588 6.418879 42.810661 14
